ply
format ascii 1.0
element vertex 1189
property float x
property float y
property float z
end_header
0.340078 -3.849164 32.788341
0.264625 -3.404400 32.104276
-8.713713 -1.205248 35.669688
0.276062 -3.513251 32.209663
2.788699 -5.775307 32.697899
1.330740 -2.358126 29.727100
-9.289299 -6.634715 41.570483
-0.251012 -2.384429 30.551662
-0.235869 -2.517949 30.661724
-0.247952 -2.448958 30.524009
-0.120592 -3.037695 31.898026
-1.488187 -11.482792 44.586694
-0.028396 -3.803601 32.617159
0.405981 -4.558064 33.510327
1.594802 -4.135554 33.005113
0.010503 -4.374236 33.146982
-0.022328 -4.005082 32.813069
3.565237 -6.201081 31.982697
-0.054689 -3.555819 32.432374
1.594802 -4.135554 33.005113
3.175919 -5.869214 32.312123
0.339335 -4.086529 32.909790
3.589061 -6.863202 32.088128
3.839200 -6.705051 31.607128
0.025069 -4.473868 33.152728
-0.065430 -3.601795 32.263623
-5.548172 -3.015885 35.557842
0.275712 -3.786850 32.323398
3.869909 -6.837092 31.750653
3.869909 -6.837092 31.750653
0.271179 -3.355946 32.379446
0.365026 -4.320933 33.215857
2.998050 0.264153 24.724915
2.873212 0.360610 24.132571
1.150604 -4.935813 34.295673
3.869909 -6.837092 31.750653
4.381285 -7.176575 31.068128
4.381285 -7.176575 31.068128
1.584294 -4.043160 32.961852
1.742218 -4.236812 32.773564
-6.369697 -7.055686 41.486623
0.220736 -3.177502 31.907697
2.221309 0.248001 24.977505
2.221309 0.248001 24.977505
2.109664 0.109344 25.461845
1.561896 -3.932215 32.880323
-9.179136 -6.498877 41.082983
-15.210392 -1.607487 35.582098
0.233271 -3.317453 32.083348
1.835144 -4.653776 33.488950
2.093252 0.771050 24.311661
0.902715 -3.423021 32.235520
-6.384241 -6.344750 41.353241
-6.384241 -6.344750 41.353241
1.906829 0.255387 25.198851
-5.587102 -1.370559 34.719618
-5.587102 -1.370559 34.719618
-6.073659 -0.972270 34.512042
2.908215 0.386842 24.163486
2.908215 0.386842 24.163486
2.907328 0.293746 24.428847
2.908215 0.386842 24.163486
2.819372 -5.609958 32.791132
2.819372 -5.609958 32.791132
2.849643 0.456477 24.168970
2.849643 0.456477 24.168970
0.328018 -4.129835 32.997991
4.411564 -7.382260 30.949536
2.824272 -6.051160 32.786632
1.190555 -4.867707 33.857875
1.542205 -3.818921 32.794095
3.847964 -6.759842 31.619074
1.976561 0.634700 24.754431
3.562161 -6.287690 32.016225
3.562161 -6.287690 32.016225
1.616988 -4.467946 33.322763
1.001160 -3.908027 32.991969
-6.125408 -3.346954 36.100430
-8.149699 -1.033276 35.376797
-8.631814 -1.538390 35.907057
-8.631814 -1.538390 35.907057
1.258395 -2.151404 29.487883
2.815961 -5.737313 32.699014
1.479021 -3.335244 32.369722
-6.155527 -3.233351 36.091927
0.711219 -2.603916 29.896278
2.898819 0.410990 23.904345
3.111801 0.251698 24.894472
1.582500 -4.203112 33.107075
1.582500 -4.203112 33.107075
3.555275 -6.742552 32.015342
1.705116 -4.018834 32.892073
2.798316 -5.402434 32.564447
1.545799 -3.755382 32.890160
1.545799 -3.755382 32.890160
1.214931 -2.175681 29.349545
1.749581 -4.564141 33.253491
1.749581 -4.564141 33.253491
3.176969 -5.393965 32.163045
2.539440 0.129832 25.025755
-8.612116 -6.298582 41.038809
2.791683 -5.083479 32.544356
2.809409 0.369234 24.077124
1.715812 -4.248757 33.063549
0.305928 -4.211359 32.912449
2.924240 0.461892 23.906203
1.044421 -1.779860 29.168287
1.826172 -5.201596 33.857006
1.064551 -4.508162 33.358035
-8.647543 -6.812971 41.557187
0.259688 -3.715211 32.590601
2.945676 0.391049 23.940390
2.945676 0.391049 23.940390
1.732978 -4.517512 33.238084
-8.830976 -4.452014 39.202947
2.787812 -5.262128 32.436492
1.192832 -2.250177 29.340737
1.683471 -4.394403 32.918205
3.869989 -6.668589 31.612371
1.578338 -4.378486 33.206712
0.318699 -4.298541 33.205725
1.551649 -4.322513 33.008500
-5.788276 -3.026352 35.863534
0.173392 -3.139649 31.879759
-1.902343 -1.443104 30.309679
1.679132 -3.937639 33.083292
-1.902343 -1.443104 30.309679
-8.092122 -1.479226 35.658717
1.616307 -3.661818 32.642694
-0.075930 -1.751993 29.461140
1.197883 -2.367534 29.540246
1.768851 -4.929726 33.707297
-0.075930 -1.751993 29.461140
0.207852 -3.330826 32.239645
1.084517 -1.609353 28.756907
0.501563 -0.631171 28.238732
3.182664 -5.652367 32.063111
1.050008 -1.820907 29.311328
-1.941349 -0.052940 29.702688
1.627649 -3.755499 32.763737
1.666029 -4.153838 33.032281
3.989678 -7.114484 31.756531
3.989678 -7.114484 31.756531
2.828448 -5.783140 32.490735
0.962892 -3.310958 32.482448
1.106910 -4.581254 33.573623
3.322326 -6.041216 32.128687
1.045534 -3.548293 32.609178
1.085785 -1.472336 28.903599
1.045534 -3.548293 32.609178
1.085785 -1.472336 28.903599
-5.838541 -1.306661 34.794110
2.449148 0.395587 24.482591
1.188399 -2.413923 29.627166
-6.041714 -4.658110 39.375248
-8.712012 -4.561039 39.208554
0.652256 -2.411557 29.789199
0.618345 -1.123744 29.149365
-8.823148 -6.338613 40.700056
-5.866947 -0.718144 34.441518
2.840338 -5.368654 32.544076
0.666900 -2.544947 29.865291
1.206404 -4.797639 33.814387
0.614987 -1.123560 29.092532
1.492468 -3.541091 32.706386
0.064656 -2.680113 30.943481
-8.430703 -4.899172 39.963074
1.497082 -3.698558 32.731160
1.141673 -1.869933 29.345633
2.560256 0.121861 24.763850
1.654477 -4.357577 33.098521
2.560256 0.121861 24.763850
-8.493187 -6.190318 40.934527
2.322217 0.741503 23.819518
-6.190371 -6.277662 41.224671
1.619704 -3.785669 32.886270
1.619704 -3.785669 32.886270
1.983130 0.298963 25.352543
0.064656 -2.680113 30.943481
2.822542 -4.773626 32.390473
1.515923 -4.013662 32.863990
0.199971 -3.456914 32.284231
-8.354020 -1.214523 35.800004
0.264622 -4.052200 32.880306
0.633522 -1.999843 29.563599
0.073117 -2.574987 31.066887
2.763746 -4.951262 31.990646
1.620315 -3.988389 32.911693
2.926818 0.750531 23.176073
0.668262 -2.058712 29.792472
0.649126 -1.916660 29.634994
1.524944 -3.231697 32.291451
-1.872814 0.558243 29.068581
-1.012653 -10.159613 44.000193
-8.262303 -1.165858 35.472623
1.386365 -2.821511 31.985422
1.604374 -3.848762 32.884824
0.630431 -1.731031 29.423647
3.340931 -6.132484 32.260808
0.702625 -2.485215 29.953939
3.055348 0.432978 23.619642
2.839613 -5.041156 32.402926
-6.568267 -5.129845 40.086462
1.000325 -3.353473 32.453574
-6.243218 -4.738007 39.222377
2.886075 -5.589416 32.639394
0.202067 -3.507785 32.337032
1.000325 -3.353473 32.453575
2.847502 -5.264891 32.416926
-8.468054 -6.068918 40.976866
3.293788 -5.560938 32.171578
1.895470 0.783105 24.517345
0.202067 -3.507785 32.337032
1.485383 -3.896052 32.727209
1.023208 -2.227287 29.218744
3.891984 -7.049768 31.504283
1.538597 -4.168331 33.153844
1.088583 -3.926816 32.796564
1.521903 -3.979463 33.047355
3.268587 -6.260315 32.329276
2.505187 0.334458 24.638372
3.942329 -7.154536 31.608616
-8.453519 -5.993243 41.002220
2.286354 1.121444 23.545888
2.480556 0.679177 24.518794
0.997675 -1.429421 29.181383
2.615945 0.117478 25.190315
-6.346720 -2.479580 35.638721
2.476132 0.537381 24.397300
-8.502990 -6.916734 41.802708
-8.502990 -6.916734 41.802708
-8.408830 -5.972352 40.696701
2.893583 -5.155383 32.622593
1.408497 -3.194321 32.345007
2.019441 0.270081 25.274823
-0.939712 -10.132738 43.885199
2.019141 1.111939 24.177340
2.855686 -5.199925 32.345465
3.319008 -6.274033 32.225888
3.258621 -5.664224 32.186183
3.270581 -5.984954 32.235004
-6.680383 -6.241069 41.145691
0.340078 -3.849164 32.788341
2.732285 -4.803820 32.424789
2.749770 -4.943761 32.549476
2.768679 -5.318784 32.651100
1.161002 -4.230037 33.357663
2.710674 -4.826001 32.318016
0.371299 -4.252459 33.007440
-1.673370 -9.835763 43.304457
2.829910 -4.569550 32.144371
-1.673370 -9.835763 43.304457
-17.524256 -2.387684 35.665748
0.145909 -2.519138 30.845712
-1.626333 -11.446074 44.454432
-2.341967 1.044439 29.478626
2.863398 -4.926546 32.295874
0.164588 -3.326435 32.201996
-6.403917 -3.114394 36.064638
-1.785516 -8.739949 42.021368
0.038587 -1.951503 29.667796
-8.024821 -2.943167 36.838113
-0.006495 -1.668249 29.209593
0.305366 -3.266705 32.129070
-12.391955 -2.458735 38.254833
2.721267 -5.104405 32.577329
2.734957 -5.550239 32.653613
2.881951 -4.836551 32.393082
0.369346 -3.636939 32.623003
-8.416444 -6.952888 41.557237
0.446494 -4.422894 33.273620
0.322318 -3.327490 32.140674
0.289326 -3.119669 31.780788
2.616760 -4.000702 32.102338
0.185105 -3.567139 32.411482
2.689097 -5.055615 32.513072
2.735118 -5.203944 32.799391
2.040691 1.399892 23.882580
3.593136 -6.150449 31.971125
0.727346 -0.092079 27.396032
0.185105 -3.567139 32.411482
1.080013 -3.923499 32.684401
1.492319 0.885037 25.380836
0.408221 -4.040138 32.810153
-1.881489 -9.944988 43.250467
0.372974 -3.504832 32.523871
-2.436583 -0.157523 30.145418
0.460864 -4.289042 33.272246
4.255065 -6.449634 31.430903
0.345154 -3.385994 32.221980
-8.402961 -6.114438 41.325055
0.423010 -3.987297 32.792038
0.375750 -3.429753 32.374179
0.530955 -4.650064 33.664304
-2.048907 -8.168587 41.911658
0.119140 -2.147340 29.829673
3.498647 -6.040411 32.062183
0.119140 -2.147340 29.829673
2.845831 -4.867989 32.099963
0.468207 -4.149537 33.075617
2.713813 -5.592333 32.849188
2.131700 -1.703507 29.408767
2.602461 -4.451487 32.229918
0.400147 -3.661825 32.401154
-6.435401 -0.723128 34.880060
-17.875472 -2.375142 36.186960
0.502941 -4.333918 33.333971
0.421648 -3.710099 32.557662
0.088402 -1.803573 29.424027
3.515128 -6.775968 32.129744
-11.907448 -1.955353 37.467756
-2.656376 1.042421 29.518560
2.901409 -5.276752 32.375038
-2.656376 1.042421 29.518560
0.494045 -4.226500 33.140973
2.622761 -4.581384 32.462546
-2.673176 1.199360 29.539720
2.640957 -5.049051 32.561270
2.561705 -4.661570 32.089903
2.887871 -4.785445 32.316281
2.887871 -4.785445 32.316281
2.899846 -5.272870 32.358711
0.221867 -2.511223 30.542203
2.650297 -5.362749 32.640385
-2.272721 -8.058285 42.038453
0.170895 -2.344102 29.955063
2.645316 -5.304286 32.646242
1.178384 -4.530200 33.408945
-0.022977 -0.402065 28.258640
-2.757565 1.386448 29.865108
-2.757565 1.386448 29.865108
1.442295 -3.945384 32.899935
2.930059 -5.546666 32.508881
2.665035 -5.418748 32.815910
-11.687067 -1.170148 37.195544
0.156752 -2.167120 29.694519
-2.763842 0.609548 29.860911
0.458461 -3.738934 32.497566
1.128767 -4.101443 33.017385
-2.260649 -11.379304 44.003794
0.207783 -3.847248 32.760421
1.577162 -5.132272 33.891255
1.577162 -5.132272 33.891255
2.916387 -5.097703 32.448815
0.458461 -3.738934 32.497566
1.128767 -4.101443 33.017385
1.101916 -3.700274 32.823711
1.111987 -3.995357 32.874048
-1.550565 -0.485530 30.009177
-6.481376 -0.881489 35.089014
0.596258 -4.593584 33.624118
-2.408460 -7.934513 41.653200
-2.288552 -11.518845 44.269312
-6.782456 -5.892438 40.828013
-2.288552 -11.518845 44.269312
0.558976 -0.701992 28.467181
1.332111 -3.015307 32.147144
0.527532 -3.907809 32.941482
-1.535408 -0.594734 30.092546
0.455620 -3.561826 32.243885
0.530314 -3.865285 32.878664
2.087669 -1.719963 29.464662
0.466185 -3.248820 32.296291
1.422793 0.909232 25.364675
0.148734 -1.620776 29.364385
-6.748830 -5.119532 39.937323
2.623457 -5.235949 32.672767
2.595048 -4.990228 32.521579
-1.533863 -0.482166 29.921179
2.917691 -5.220912 32.421454
1.320788 -3.062294 32.110035
-2.882421 1.087577 29.473344
-2.391839 -11.690671 44.304421
0.275850 -4.539229 33.455106
0.606429 -4.221030 33.258619
0.606429 -4.221030 33.258619
0.091487 -0.833682 28.615217
0.091487 -0.833682 28.615217
0.507635 -3.311921 32.329531
-2.957906 1.340107 29.442379
2.594216 -5.041716 32.596991
0.533280 -3.621053 32.512482
1.670801 0.203084 25.095740
1.335833 -3.131127 32.261043
2.589211 -5.108420 32.579063
2.598308 -5.184368 32.635782
1.734812 0.288131 25.459725
2.090011 -1.813028 29.597555
2.090011 -1.813028 29.597555
-2.982288 1.267590 29.623958
-2.971375 0.361802 30.121970
2.561507 -4.917265 32.483494
-3.004970 1.409461 29.707611
2.573477 -4.874427 32.575334
3.438456 -6.126557 31.854765
0.628881 -4.327450 33.254505
-2.644652 -9.145936 42.426320
-0.169898 -1.673324 29.154580
1.353124 -3.287895 32.405787
2.556309 -4.954914 32.498877
-3.000591 0.244925 30.318414
2.030446 -1.709517 29.321976
2.594163 -5.482860 32.729460
0.602631 -1.048731 28.735397
0.783778 -2.367677 30.149190
-17.050324 -2.132017 35.895095
2.572449 -5.292267 32.598679
-8.022759 -4.006339 38.116018
0.783778 -2.367677 30.149190
-3.017479 0.400606 30.050464
-2.988313 -0.982664 30.582047
-2.619141 -11.544453 44.392304
-6.833338 -5.043993 40.135360
0.584148 -3.776940 32.780114
2.938977 -5.470312 32.367892
3.470560 -6.233245 32.050798
1.414697 0.622819 25.547453
3.650738 -7.003439 31.905552
3.622529 -6.536068 31.771640
1.067099 -3.339521 32.479613
2.563776 -5.066742 32.628347
2.580389 -5.429824 32.724690
3.642567 -6.942102 31.854206
1.393803 -3.664293 32.724202
3.642567 -6.942102 31.854206
-2.698405 -10.027430 43.160824
2.914229 -5.346045 32.204284
0.179075 -3.907266 32.654577
-3.049053 0.275562 30.261829
2.080511 -1.936378 29.755337
0.924226 -1.505378 29.163694
2.508801 -4.143631 32.395467
1.988741 -1.681656 29.201257
4.185310 -6.835896 31.352722
-3.022366 -1.248663 32.142159
-3.097470 1.149446 29.893589
-1.417940 -0.321826 29.481676
0.090337 -3.296406 31.867581
-3.082724 0.407757 30.125240
2.498015 -5.335636 32.336465
-3.127805 0.476845 30.207045
2.511079 -5.341833 32.447323
0.952225 -2.245200 29.376706
0.952225 -2.245200 29.376706
-3.078548 -1.669680 33.970456
-3.085263 -1.947393 34.491725
-11.283047 -3.231238 38.394456
0.676829 -0.089209 27.409121
-2.829086 -11.256059 44.048379
0.626610 -3.890730 32.913820
-2.854710 -10.780775 43.659175
-3.210320 1.385059 29.557552
-18.197261 -2.455423 35.914317
-3.210320 1.385059 29.557552
1.333544 -3.349378 32.427725
-3.137467 -1.377707 33.622872
1.205373 -4.483232 33.486914
-2.875785 -10.715518 43.627477
-3.229251 1.538051 29.583378
2.543679 -5.408920 32.749795
-3.138787 -1.755973 34.498732
0.675556 -4.056834 33.239249
2.596783 -5.670313 33.092518
-0.120413 -2.035644 29.868933
-3.169446 -1.189427 32.036801
0.722677 -4.614506 33.588746
-2.907945 -11.235117 43.752627
0.824214 -4.998951 34.521159
0.968154 -1.778976 29.645463
-3.261036 1.426942 29.585998
0.634679 -3.989065 32.780829
-3.251036 0.773977 30.089830
-2.927864 -11.262622 44.324920
-8.186456 -6.446583 40.963014
0.141449 -3.670453 32.520417
-3.249717 0.389003 30.296918
-3.281608 1.357069 29.837472
-6.917514 -4.996100 40.145779
3.020540 -5.322465 32.690811
0.815230 -4.926175 34.371340
0.715178 -1.837895 29.423281
2.547010 -5.572830 32.815251
-1.211210 -2.503178 31.081467
2.943257 -4.654719 32.242117
2.943257 -4.654719 32.242117
-2.961420 -11.170297 44.124083
1.731548 0.727139 25.252098
3.426446 -5.742851 31.923726
-18.158502 -1.710367 35.493447
-6.949962 -5.783964 40.722976
0.593840 -3.404768 32.366161
-3.235827 -1.403754 33.623687
2.540659 -5.128354 32.818333
0.273582 -1.977980 29.437550
0.682101 -3.942515 33.102325
-3.282152 -1.141339 32.170391
2.494406 -5.043300 32.636638
2.430616 -4.287270 32.266729
0.129042 -3.604339 32.442823
0.439432 -0.051524 27.254668
-3.341971 1.189858 30.114285
3.674383 -6.498856 31.857388
-7.822339 -3.071214 36.820276
-7.822339 -3.071214 36.820276
-3.359548 1.415088 29.731746
1.931434 -1.723120 29.198589
-3.359548 1.415088 29.731746
-7.938677 -4.031330 38.206632
-7.938677 -4.031330 38.206632
0.694719 -4.248830 33.153783
-3.308549 -1.073633 31.491650
-7.726259 -1.311789 35.425766
-10.989959 -2.320771 37.613450
0.121156 -3.521386 32.396364
-10.989959 -2.320771 37.613450
-3.345884 -0.462631 30.921807
1.364589 0.553875 25.665229
-3.336067 -1.455658 34.231494
0.240637 -1.948894 29.036390
0.581713 -3.162438 32.156252
-3.351395 -1.086850 31.914509
1.993492 0.833703 24.299975
1.930043 -1.669663 29.289808
2.874986 0.184019 25.275316
-3.418184 0.698034 30.121171
-3.413486 0.384115 30.361571
1.348105 0.648622 25.728388
0.697589 -4.079802 32.965442
-6.657179 -0.819846 35.022532
-6.676757 -1.940191 35.680347
0.696350 -4.036389 32.959565
1.373824 -4.038482 32.831562
-7.686417 -1.267544 35.240541
-3.444971 -1.285853 33.936810
-3.479504 0.640545 30.235655
-3.289115 -9.796172 43.156932
-3.292558 -9.657865 42.970440
-3.478210 -0.368085 31.212532
-3.503746 0.589964 30.351038
2.523440 -5.776532 33.149884
-3.485785 -0.488733 31.302898
0.803036 -4.728480 33.848139
-3.518387 0.996417 29.948794
-3.443851 -2.717407 33.323907
-1.373746 1.380728 27.910971
-7.057659 -6.835893 41.651365
2.494810 -5.436595 33.005734
0.176134 -0.556624 28.400984
-6.669219 -1.037208 34.824520
0.706828 -0.313640 27.809108
2.358474 0.293460 25.041091
2.371075 0.228552 25.106787
1.663387 0.651822 24.682268
-3.509059 -1.241972 34.026917
0.926100 -2.334240 29.390449
1.663387 0.651822 24.682268
-3.347166 -9.663015 42.412007
-3.517931 -0.547618 31.484201
-3.542160 0.551546 30.326298
1.357269 -3.936600 32.755307
-10.746213 -2.597627 37.696986
-3.516700 -0.863071 31.671605
-3.549699 0.654073 30.169981
0.681626 -3.796181 32.679581
-1.333487 1.001167 28.159490
-18.400582 -1.832862 35.689432
-18.400582 -1.832862 35.689432
-1.062188 -2.807851 31.433922
2.411406 -4.401680 32.623946
-1.038748 -2.909851 31.706594
-7.047436 -6.623407 41.271557
3.438175 -5.987747 32.027887
-3.551087 -0.967814 31.940807
-3.559669 -0.797930 31.768388
0.274710 -1.657869 29.046087
2.497696 -5.676086 33.140602
-3.566140 -1.298998 33.605324
0.185862 -0.506479 28.316534
2.389480 -4.299054 32.544486
2.487916 -5.489655 33.144698
-3.600278 -0.393290 31.356074
-18.465450 -2.035786 35.777074
-18.465450 -2.035786 35.777074
-3.602349 -0.892332 31.951284
0.641009 -3.249606 32.185425
0.781042 -4.406083 33.338146
2.412228 -5.097672 32.774886
-3.624448 -1.405797 33.154522
0.722250 -3.751193 32.859421
1.795057 0.376241 25.372825
-3.640504 -0.782790 31.865033
-3.631115 -2.245846 34.374105
0.806975 -4.602837 33.520905
-7.696692 -1.785703 35.882071
1.300694 -3.756934 32.416027
-3.652625 -0.814810 31.896632
-10.870649 -4.935681 39.810762
-10.870649 -4.935681 39.810762
1.309627 -3.433415 32.538995
-3.650838 -1.318926 32.947055
-3.662714 -1.442740 33.184263
-6.742969 -0.925065 35.211237
-3.675553 -0.730906 31.627442
-0.982037 -2.920640 31.727010
2.468876 -5.522641 33.207842
0.621492 0.023800 27.289173
2.468876 -5.522641 33.207842
2.204248 0.732079 24.174676
0.232113 -0.925644 28.525305
-6.768648 -1.942466 35.805602
-3.696175 -2.129124 34.717216
-6.768648 -1.942466 35.805602
0.601903 -0.834111 28.506585
3.032771 -6.178717 32.356758
-3.691434 -2.327145 34.775597
-0.984091 -2.817832 31.585304
0.638947 0.125362 27.478407
-7.029373 -5.316166 40.090670
-0.952410 -3.315336 31.919569
-10.496294 -2.506855 37.553687
-0.956158 -2.865679 31.949294
-0.956158 -2.865679 31.949294
0.632251 -2.992148 32.016466
2.487235 -5.715101 33.398857
2.353510 -4.613049 32.580404
-3.735717 -1.066899 32.306752
-6.775162 -2.568328 35.914957
0.128443 -3.905956 32.680239
-3.744537 -1.262409 32.957792
3.007416 -5.697607 32.202083
-3.747422 -2.148902 34.684526
-10.495978 -3.069211 38.064800
-1.259054 1.430593 27.959950
0.162814 -4.276832 33.049765
-3.750991 -2.324020 34.682429
-3.760196 -2.047841 34.768262
0.692026 -3.516250 32.474200
2.334847 -4.705248 32.505070
2.355196 -4.508171 32.670936
-7.646051 -1.830951 35.692009
2.355196 -4.508171 32.670936
-3.769285 -1.332538 32.907233
1.932279 -2.235603 30.032892
2.417542 -5.382478 33.096907
2.601768 0.540680 24.089735
2.306009 -4.648097 32.404639
2.306009 -4.648097 32.404639
-3.782174 -1.458164 33.068291
2.386789 -4.893451 32.953296
1.295995 -3.348198 32.539914
1.315649 -3.696608 32.681060
1.315649 -3.696608 32.681060
-3.804477 0.272387 31.103037
-3.807861 0.222835 31.054336
-3.796159 -1.271261 32.901539
0.916600 -4.911424 34.336428
-10.399491 -3.154449 37.906230
-10.399491 -3.154449 37.906230
-3.819647 0.243348 31.266797
-6.793803 -2.781347 35.983362
0.758532 -3.931030 32.960521
-6.776265 -0.792589 34.976446
0.238303 -0.600418 28.477863
2.371096 -5.178279 32.981139
0.482122 0.224675 27.552166
1.749571 -1.776662 29.032082
-10.383984 -3.199260 38.032036
3.720845 -6.830024 31.858958
-0.942765 -2.532313 31.201079
0.700486 -3.481224 32.430514
-3.843518 -2.366016 35.025012
0.680771 -3.312855 32.234378
2.379984 -5.426713 33.086867
-3.869698 -2.180149 34.810042
0.768904 -4.260987 32.891229
0.768904 -4.260987 32.891229
-3.879274 -0.906489 32.233836
1.846396 0.192792 25.528788
1.846396 0.192792 25.528788
1.237555 0.616925 25.817308
-6.825497 -2.620419 36.006417
1.194580 -4.310861 33.107886
2.299401 -4.203974 32.686700
2.321949 -4.815257 32.829832
0.893879 -4.926205 33.954306
-1.218730 1.265349 27.811594
-18.646117 -1.812719 35.567279
-18.646117 -1.812719 35.567279
-1.195301 0.909672 28.013900
2.283825 -4.472348 32.654135
2.312012 -5.066771 32.811002
-8.049367 -6.480662 41.265651
-8.049367 -6.480662 41.265651
1.347922 -4.129935 33.029414
-0.331300 -0.212117 28.391186
-0.331300 -0.212117 28.391186
2.322623 -5.221534 32.991803
1.193264 0.672804 25.720084
2.264381 -4.078116 32.690062
-3.937025 -2.428020 34.898709
2.257347 -4.536600 32.622251
-0.858657 -3.097543 31.755170
-0.858657 -3.097543 31.755170
1.365992 -4.253663 33.184914
-0.865317 -2.713036 31.705350
2.337184 -5.381011 33.194039
0.872283 -1.861501 29.372336
-0.741997 -4.481345 33.028193
-3.976867 -1.376897 33.214627
0.770848 -3.782207 32.873766
-0.823450 -3.544589 32.030449
2.293212 -5.011983 32.963324
2.295847 -5.101876 32.981328
2.227676 -4.356615 32.592953
-3.994669 -3.201075 35.599265
2.277769 -5.076437 32.943906
2.294226 -5.254249 33.051409
1.666782 -1.789447 29.002124
2.291871 0.619722 24.494239
0.713939 -3.396493 32.327704
-18.708304 -1.620116 35.497388
-18.708304 -1.620116 35.497388
3.153773 -6.577420 32.872356
1.685356 -1.628384 29.190325
1.267887 -3.455389 32.548828
2.241657 -4.663885 32.800595
-0.882305 -2.570370 31.177211
-18.669262 -1.507301 35.351321
2.191153 1.013082 23.969911
-6.845430 -1.771006 35.566264
-6.845430 -1.771006 35.566264
-10.017094 -1.794150 36.695543
0.389551 -2.034402 29.447093
-7.602176 -1.653429 35.801470
3.092611 -5.847128 32.525309
3.092611 -5.847128 32.525309
-4.044069 -3.338866 35.183990
2.248618 -5.161843 32.906055
-7.192924 -5.881433 40.977151
-7.236308 -7.527655 42.027386
-0.798770 -3.085539 31.758392
0.797215 -2.607997 29.855375
3.076395 -5.419956 32.448495
2.156118 0.128443 25.355981
-0.754551 -3.561654 32.179182
-4.096003 -3.215909 35.593302
1.812437 0.291596 25.258320
2.164916 0.102097 25.405643
3.750536 -6.997061 31.882888
-0.876083 -2.347746 30.587540
4.146304 -7.080264 31.651047
-4.131673 -2.395161 34.945064
0.408675 -1.997114 29.554067
-4.139998 -3.558332 36.019200
1.717230 0.611103 24.702697
-4.128914 -3.602748 35.511789
2.330651 0.333255 24.631889
2.330651 0.333255 24.631889
2.225926 -5.086660 32.945186
-0.788664 -2.770739 31.520404
-6.887034 -2.563275 36.086121
-4.149787 -0.173741 31.827359
-18.852083 -1.768497 35.638950
0.365383 -1.363210 29.213728
-0.635331 -4.681964 33.207736
2.228737 -5.026551 33.021185
-7.212667 -5.966261 40.880347
0.419451 -2.263290 29.593899
-4.177554 -3.156101 35.631861
4.069141 -6.515724 31.320004
0.926255 -2.524578 29.935003
-4.181609 -3.242236 35.721806
-4.189812 -3.335343 35.612472
0.413480 -2.265661 29.503026
-6.853331 -1.024776 34.998633
3.386183 -5.894132 31.961517
-6.853331 -1.024776 34.998633
2.683881 0.211922 24.649881
0.676558 -2.999157 31.859051
0.676558 -2.999157 31.859051
0.840143 -1.915868 29.294106
3.050522 -5.671233 32.232827
0.840143 -1.915868 29.294106
0.119671 -4.331415 32.898066
0.748810 -1.960673 29.496803
4.102747 -7.240755 31.484570
0.604732 -0.663568 28.412062
1.607610 -1.864180 29.026396
-4.234016 -2.027747 34.589317
-4.226171 -3.551368 35.718677
-10.057938 -3.477010 38.116197
-7.243000 -6.236879 41.071566
-7.549249 -1.807596 35.740220
2.176496 -4.506294 32.818416
-0.659922 -3.970623 32.440554
-6.889338 -0.932752 35.140512
-4.252464 -2.388418 34.967048
-4.237746 0.700864 31.013787
0.735626 -3.187931 32.313419
2.193160 -4.978398 32.973955
1.245258 -3.409598 32.590441
-4.249972 -3.462860 35.344475
-9.806064 -1.232085 36.116205
-9.806064 -1.232085 36.116205
-4.276963 -3.155940 35.918445
-7.508323 -1.498821 35.336438
-7.508323 -1.498821 35.336438
-4.276938 -1.964199 34.599728
2.241055 -5.328268 33.337694
2.110351 -3.968769 32.534976
-4.288604 -2.238491 34.828532
2.110351 -3.968769 32.534976
-4.295653 -1.043670 33.224585
2.194742 -4.916271 33.059914
0.784287 -3.583581 32.678472
0.028073 -3.392351 32.153246
-4.316870 -3.286739 35.846475
-4.298215 0.748676 30.926166
0.029203 -3.498074 32.166097
-0.574355 -4.650438 33.155782
-4.298215 0.748676 30.926166
3.748963 -6.567913 31.741972
3.075748 -5.455506 32.306711
-7.524701 -1.262674 35.494799
1.906928 1.154582 24.073586
-4.321359 -0.195073 32.209178
0.740090 -3.345370 32.250478
2.223848 -5.500943 33.386546
0.740090 -3.345370 32.250478
-4.352537 -0.395881 32.408088
3.383522 -6.258015 31.991301
-9.832927 -2.230110 37.019440
-4.361602 -0.419918 32.646462
-4.378622 -2.108583 34.597234
2.212320 -5.277186 33.343994
-4.389829 -2.366930 35.077030
-4.390354 -3.415067 35.969013
-4.388442 -3.139977 35.599431
-6.913360 -1.566900 35.076459
0.655611 -0.497654 28.045998
-0.651796 -3.163017 31.978038
0.829884 -3.772979 32.966532
-7.504243 -1.201492 35.442034
0.500380 -2.527836 30.067699
-4.402066 -0.733025 33.185747
-4.405090 -0.956127 33.295092
0.500380 -2.527836 30.067699
-7.301481 -5.988860 40.953747
0.710934 -3.081855 31.936328
0.744095 -3.225993 32.225538
-4.403740 -0.437670 32.451044
-6.934275 -1.044359 35.016500
-4.422179 -3.064724 35.496099
-4.422039 -3.498725 35.792058
3.089460 -5.934965 32.313963
-4.427848 -2.318747 34.599114
-0.535663 -4.470311 32.925043
-4.443354 0.210771 31.897222
-4.443354 0.210771 31.897222
-4.472259 -1.869364 34.428048
-6.961171 -0.948078 35.081584
-6.961171 -0.948078 35.081584
2.064861 -4.067900 32.681232
-4.489430 -2.981684 35.693838
-7.524334 -2.703097 36.334115
-0.491438 -4.804301 33.391065
-4.480789 -3.569993 35.864020
-6.956174 -1.002198 34.965866
0.526318 0.463531 27.107812
-6.997474 -2.243655 35.841560
2.102434 -4.784374 32.926666
0.881165 -4.211259 33.255153
1.165814 -3.086277 32.083139
1.264072 -3.975865 32.815462
0.111918 -4.123047 33.078289
0.857283 -4.364007 32.983858
0.111918 -4.123047 33.078289
-4.527275 0.958381 31.265048
-0.981643 1.378949 27.752433
1.528316 -1.818123 29.169873
1.522420 -1.759029 29.135458
-0.447348 -4.942268 33.566399
-0.918942 0.344547 28.323788
2.141864 -4.958418 33.290746
0.029366 -3.459194 32.288103
-4.571856 -0.483599 33.187525
0.196325 -4.853970 33.932250
-4.551227 0.883097 31.266874
1.760939 -2.497919 30.816908
1.760939 -2.497919 30.816908
1.307131 -4.196483 33.198803
0.800273 -3.523435 32.494797
2.191549 -5.493954 33.661092
2.170652 -5.315500 33.533387
0.795003 -3.469837 32.415365
0.795003 -3.469837 32.415365
-4.587789 -3.987358 35.930914
-4.573201 0.570402 31.487069
3.098277 -5.993026 32.269594
-0.513483 -3.756736 32.303356
-0.513483 -3.756736 32.303356
4.117629 -7.365633 31.685587
-4.610810 -0.660213 33.241802
-0.506114 -3.847474 32.300548
-7.065287 -2.565020 35.924730
0.465417 -2.148498 29.483696
-0.552747 -2.953499 31.761626
-0.665776 -2.113449 30.405465
-4.641248 -0.564060 33.317404
1.241086 -3.867003 32.703317
-4.614210 0.983229 31.275694
0.909473 -4.317489 33.263580
-0.449581 -4.305775 32.709146
0.413806 -1.782800 29.029216
-4.646492 -0.480831 32.985625
-9.684430 -2.954376 37.589614
-4.641358 0.637139 31.621326
0.011280 -3.337461 32.256972
-7.441759 -1.212588 35.495021
1.244279 -4.436442 33.259731
0.562887 0.121247 27.490358
-4.692943 -0.501375 33.580029
-4.659796 0.809845 31.494812
-0.407653 -4.391453 32.974750
-4.703532 -3.087440 35.667382
-0.493159 -3.275560 32.050287
-0.371784 -4.748344 33.306846
-4.703532 -3.087440 35.667382
2.036047 -4.117890 32.833240
-4.722660 -3.281464 35.939940
0.130478 -4.668130 33.443902
-0.224241 -2.097434 29.877891
1.758871 0.882832 24.720831
2.119780 -5.237918 33.341202
-7.448265 -6.052073 40.855520
-0.604181 -2.333639 30.628325
-0.604181 -2.333639 30.628325
1.758871 0.882832 24.720831
0.505693 -2.379031 29.729160
2.715170 0.135949 24.989810
2.000198 -4.178992 32.589176
3.382838 -6.313387 32.076081
2.000198 -4.178992 32.589176
-4.727072 -2.689281 35.245988
0.372644 -0.785146 28.693298
2.109267 -5.150855 33.292888
1.980002 -3.767976 32.497416
1.980002 -3.767976 32.497416
-0.491735 -2.956810 31.768859
-4.752681 -1.808901 34.589137
-4.723564 0.228612 32.200829
-4.712792 0.971653 31.342160
-9.429178 -1.682162 36.237291
2.115661 -4.873657 33.448022
0.078152 -4.213273 33.084937
-0.472644 -3.207622 31.855850
-0.338256 -4.636579 33.298198
-4.802913 -3.149631 36.002942
-0.466623 -3.051859 31.861533
-7.731868 -5.334045 40.187089
-0.428071 -3.604381 32.223623
-4.804100 -2.123598 34.751166
-4.825028 -2.592559 35.062932
1.184132 -3.412675 32.737373
-0.417135 -3.433225 32.233267
0.383289 -0.741198 28.722644
0.509837 -2.225421 29.661108
-0.437999 -3.109623 31.919612
0.616628 -0.464842 27.969890
0.616628 -0.464842 27.969890
2.075468 -4.810656 33.280660
-9.608821 -3.810395 38.507474
-9.608821 -3.810395 38.507474
2.075468 -4.810656 33.280660
-4.877838 -2.494180 35.111329
3.759162 -6.463896 31.583943
1.996281 -4.492615 32.836314
1.180052 -3.825336 32.626755
1.229283 -3.772740 32.768216
-7.754061 -6.190715 41.063073
1.180052 -3.825336 32.626755
1.187948 -3.876936 32.681241
-4.945324 -3.145285 35.572505
0.541629 0.013582 27.419934
2.018403 -4.602267 33.012853
3.854921 -6.807779 32.042750
1.278516 -4.318283 33.144470
0.894674 -3.921140 32.914421
-4.955588 -3.139811 35.412080
-4.983229 -3.142876 36.064693
-0.367331 -3.707287 32.496113
-0.404825 -3.374000 32.069512
1.959421 -4.007124 32.711774
1.858084 0.249888 25.197481
-7.338042 -1.449928 35.563790
-4.993488 -3.058232 35.494466
-4.993488 -3.058232 35.494466
-7.678159 -5.349928 40.397393
-4.955920 0.304116 32.376479
-9.406559 -2.939038 37.577476
-9.406559 -2.939038 37.577476
-0.731556 0.335794 28.297252
1.975386 -3.982016 32.894331
-0.731556 0.335794 28.297252
-7.290668 -0.973736 35.065366
-0.385365 -3.123994 31.979595
-5.013469 -3.367205 35.619408
3.832533 -7.080882 31.858535
-5.018003 -1.584234 34.286176
-7.663850 -5.486111 40.445515
-5.047253 -3.621243 36.054150
-5.045205 -3.013354 35.580563
-19.305526 -1.471935 35.433780
-7.697084 -6.570951 41.244368
0.795950 -1.886873 29.525564
1.400404 -1.973670 28.991099
0.957961 -4.485816 33.301342
0.048951 -5.323362 36.722961
0.048951 -5.323362 36.722961
1.424362 -1.759305 29.185827
-7.650303 -5.413671 40.419689
1.424362 -1.759305 29.185827
-7.650303 -5.413671 40.419689
1.911220 0.926173 24.226256
-0.364058 -3.032538 31.918552
2.073252 -5.221264 33.648471
-0.356809 -3.333049 31.935692
-5.072223 -3.523681 35.959450
1.785676 0.651757 24.749323
-5.077960 -3.707211 36.019138
-5.080613 -3.054619 35.511505
-7.694119 -6.209114 41.255553
-5.098343 -2.918712 35.702751
-5.101121 -3.785146 36.285787
-7.179655 -0.706364 35.019438
-0.304973 -3.728466 32.411406
-0.304973 -3.728466 32.411406
-0.755193 1.261127 27.772881
-0.319810 -3.679424 32.212496
-7.591876 -6.144768 41.001391
-5.132800 -2.978022 35.628034
-5.136836 -3.665945 36.050356
-5.136126 -2.972592 35.558314
-5.145870 -3.268121 35.776262
-7.722929 -7.670963 42.325213
-7.722929 -7.670963 42.325213
0.836694 -3.377510 32.239065
-5.165116 -3.194100 35.970054
-5.165116 -3.194100 35.970054
-0.034169 -3.368517 32.252012
1.555257 -2.425630 30.372512
2.014516 -5.066998 33.544652
1.916858 -4.370024 32.906247
-7.222734 -0.865429 35.111357
-0.344350 -2.944734 31.737351
-0.239206 -4.078324 32.770667
-5.172802 -1.617809 34.580033
-9.013371 -0.532044 35.329502
-5.198528 -3.094266 35.826495
1.987613 -5.109674 33.416983
0.923383 -3.860613 32.910024
-5.217474 -3.987083 36.398554
-0.191122 -4.463238 33.145145
-5.215259 -3.522780 36.020169
-5.208970 -3.017966 35.554687
1.950344 -4.440810 33.236942
4.044601 -7.466130 31.623549
4.044601 -7.466130 31.623549
4.044601 -7.466130 31.623549
-5.223540 -3.248549 35.789000
0.066808 -4.546684 33.222851
-0.443398 -2.432546 30.349811
2.493534 0.139140 25.056829
-0.284744 -3.242327 32.055018
-5.230710 -3.376182 35.874740
-5.234977 -1.362917 34.619802
-0.079059 -2.988735 31.834040
-0.135863 -4.686356 33.453182
-0.135863 -4.686356 33.453182
-5.239987 -1.215478 34.577125
1.356706 -1.828539 29.147127
-5.241071 -3.655149 36.024581
-5.241071 -3.655149 36.024581
-5.233658 -3.806478 35.955998
-0.170961 -4.297230 33.019958
-5.248960 -3.178876 35.739373
0.892753 -3.612870 32.618391
0.559647 -2.473859 29.742806
-15.102962 -0.931731 35.920828
0.439911 -0.781587 28.859361
-5.271088 -1.277749 34.683529
0.439911 -0.781587 28.859362
-5.284416 -3.990963 36.290784
-0.210567 -3.759981 32.491978
1.307259 -1.525114 28.941833
-5.279046 -3.267395 35.620051
3.118081 -6.154569 32.103282
-5.291129 -3.229619 35.816242
1.891109 -4.337073 33.056394
-5.315366 -1.043112 34.420593
1.313451 -1.951283 28.995559
1.313451 -1.951283 28.995559
-5.309096 -2.823885 35.305593
-20.721506 -1.516463 35.370238
-0.128599 -4.190016 32.986421
-0.136886 -4.254139 32.867939
1.344157 -1.654848 29.284370
-5.331483 -2.933769 35.675041
-0.164105 -3.805472 32.528564
3.371533 -5.983251 32.205005
-8.865029 -0.618472 35.271597
-0.126315 -4.141198 32.915361
-0.118018 -4.221168 32.976488
-5.352387 -3.246972 35.880626
-5.479765 -4.820032 39.150122
-5.354316 -3.844815 36.125424
-0.290129 -2.806725 31.109241
3.135259 -6.103836 32.174399
-0.063164 -3.197037 32.117521
-5.372003 -3.344497 35.927612
-0.085135 -4.653799 33.145399
-0.251888 -2.065417 30.154340
-9.102378 -3.843567 38.163939
-0.113737 -3.863856 32.935961
-0.150726 -3.494864 32.562995
-5.413471 -3.707240 36.451664
-0.126061 -4.291457 32.683420
-8.881571 -1.700481 36.021568
-8.881571 -1.700481 36.021568
1.759688 -3.462254 32.350907
1.327345 -1.984852 29.277466
-8.840949 -1.163062 35.696793
-8.840949 -1.163062 35.696793
1.938252 -5.071697 33.559411
-5.403578 -2.133124 35.046819
3.141615 -5.911521 32.192758
1.853072 -4.247578 33.091178
-5.416217 -2.889616 35.593044
-5.420611 -3.265076 35.803442
1.912005 0.903340 24.329239
1.068391 -4.749376 33.739764
1.777697 -3.696983 32.633125
1.867508 -4.614404 33.251259
0.624642 -2.503372 30.016100
0.624642 -2.503372 30.016100
1.847654 -4.649976 33.206362
-0.068637 -3.986954 32.856417
3.991395 -6.712936 31.560836
1.802894 -4.436164 32.991998
1.787054 -4.165318 32.910297
2.568158 0.395531 24.598185
-0.087204 -3.663507 32.507370
1.240497 -1.833011 29.031732
1.240497 -1.833011 29.031731
0.516134 -1.686406 29.096175
0.893446 -3.130974 32.293377
1.263767 -1.956630 29.207302
-0.187655 -2.726276 31.397448
-0.060759 -3.843818 32.638748
3.995249 -6.715653 31.594147
-0.942744 -3.489364 32.056189
0.151775 -4.728281 33.618344
0.467826 -1.924553 29.299201
4.147664 -6.917953 31.582602
-3.265681 0.453759 30.264332
-0.723471 -5.007242 33.698546
-0.737039 -3.126711 31.559620
-1.211970 1.504638 28.094206
1.307034 -2.410209 29.778882
-7.548060 -1.559161 35.407483
-6.344336 -6.879212 41.607799
0.666316 -1.795486 29.342529
4.073238 -7.147129 31.617122
1.352006 -2.020663 29.232808
1.132819 -4.714581 33.675407
3.187171 -6.140188 31.976836
0.134775 -3.261169 32.165367
-0.540982 -4.371400 32.788424
-3.683255 -1.031333 31.909355
-0.002929 -4.068142 33.056436
-21.418883 -2.981383 36.186474
-5.315245 -3.899211 36.277350
1.712345 -3.703245 32.817758
-5.315245 -3.899211 36.277350
0.940466 -3.106141 31.966117
-18.564245 -1.855054 35.585681
-2.973053 1.105836 29.684571
-4.242986 -3.064537 35.614455
-0.403465 -3.501171 32.201608
